# 3D point list with one line of data per point:
#   POINT3D_ID, X, Y, Z, R, G, B, ERROR, TRACK[] as (IMAGE_ID, POINT2D_IDX)
# Number of points: 363, mean track length: 4.5368068833652009
15275 1.2621489390359024 1.4076949838236934 0.69268551424839031 150 31 94 0.35150898095267752 15 5395 16 5557 28 5556
15274 1.1762264491493493 1.4007284196925955 0.77789031227399719 221 205 182 0.5780891234124349 18 4456 16 5545 28 5546 11 6271 45 5718 34 6277 53 5263 71 4556
15273 1.3238705827931376 1.6566206645549348 -0.55541173967891533 39 23 23 0.18790022106823462 15 5877 16 5539 28 5525 11 5673
15272 1.1381837342899566 1.2938622684090473 0.83987682520147477 51 8 29 0.16416658600572526 15 5360 16 5529
15271 0.98895141579446189 1.7497904649295599 -0.58170815765290873 160 177 145 1.0881260288363859 15 5357 16 5519 28 5499 11 5640 56 6192
15269 0.81991868399302892 1.3714749198271052 0.94200484881968283 198 185 179 1.1644894646992778 15 5329 16 5508 11 5656
15268 0.59889897563741501 1.4455167468601311 1.0887314366179139 195 185 176 1.3107025013972478 15 5857 16 5503
15267 0.71703897158652663 1.3725451487667988 1.0450749908815204 172 174 179 0.53095184279076002 15 5855 16 5500
15266 0.71703897158652663 1.3725451487667988 1.0450749908815204 172 174 179 0.53095184279076002 15 5854 16 5499
15265 0.84086375987501227 1.7513139922282588 -0.55588741997221069 8 31 0 0.61944195051328987 15 5331 16 5495 28 6029
15263 0.94696747253916536 1.5302540523881962 -0.21424176762520755 52 66 93 0.53292972556366613 15 5317 16 5477 11 5622
15262 0.87597866766926069 1.6152601683481982 -0.40146940097836448 26 34 47 0.84047227179761574 18 5715 16 5474 28 5469
15261 0.96437429397907415 1.519920197389572 -0.39490699930417034 51 68 96 0.40683014554998714 13 4730 16 5466 28 5464
15260 0.88217358359639986 1.5940895389817218 -0.48975591418448844 45 59 85 1.2795897444098085 15 5310 16 5465 28 4620
15259 0.64653404329023467 1.5384149837032106 0.12005583267157283 181 184 194 0.37764435350495884 15 5838 16 5463
15258 0.42003368029871052 1.6181118594316217 -0.24570867424134601 178 188 197 0.53515511695213536 15 5824 16 5443 28 5446
15257 0.3540081508721451 1.6276172419277029 -0.24924246529616984 89 99 108 0.50333554576020034 15 4448 16 5440 28 6009 11 5591 36 5600
15256 -0.19937705929342045 1.5896431718302548 -0.087008626607778972 178 182 194 0.67384964116140134 18 6057 16 5418 28 5417
15252 -0.33429809348003786 1.487051859035377 -0.10513020125759298 35 12 40 0.26879042111840978 15 4380 16 5403 28 4517
15251 -0.46405739052057576 1.849227422299162 -1.4159526293552964 74 70 58 0.50867492719114094 15 5232 16 5393 28 4488 11 4565
15250 -0.94645477790090737 1.195371133236429 1.4194586819439803 169 175 190 0.26651009446758711 18 4238 16 5391
15249 -0.59350104818939775 1.8146899055386487 -1.3264702734248255 68 59 60 0.33948448672149673 15 5224 16 5384 28 5382
15247 -0.70067228828017547 1.4628147185567726 -0.20915721815306459 24 39 65 0.2781841607380926 18 5660 16 5369
15246 -1.5119512237182458 1.9350774482816706 -1.3855320677459408 141 131 126 0.4403968867693015 3 5531 16 5346 28 5350
15245 -1.519973796491032 1.9106113864597385 -1.3477945125591422 151 120 126 0.30976799895502061 3 5524 16 5341 11 5483
15244 -1.5272513233259466 1.961507287177545 -1.5399582472438111 157 196 169 0.69269616390625088 18 5641 16 5337 11 5480 56 4489 40 5399 45 5481 37 4438
15243 -2.0883576193832187 1.7168126030073505 -0.30603767073334082 162 158 146 0.69638510463213166 3 5498 53 5154
15242 -1.936409045825062 1.6089855116930931 -0.48809104378320156 156 130 129 0.20782982270797579 3 4952 16 5311
15241 -0.39816510602662186 0.99865583239941735 0.053769792554197574 136 111 114 0.47151014845251688 15 5139 16 5296 28 5310 36 5450
15240 -2.3849316196206676 1.2244130040929955 0.96805583179417565 111 109 80 0.85630085794197519 15 5138 16 5295 28 5311
15239 -2.5609344855958613 0.94413818831429819 1.8628522542081014 198 198 206 0.6284755139104562 15 4180 16 5285 28 5901
15235 -3.8235766577797676 1.3155423007064866 1.0079399951507155 42 60 44 1.0268690241019578 18 4068 16 5260 28 4293 11 4393 36 5417
15234 -3.7520511698750605 1.3065380335704229 0.9957593307705338 42 60 44 0.90508150802316745 15 5103 18 4067 16 5259 36 5416 56 5402 40 4303 37 5462
15233 -3.9160879043144687 1.2956688497303754 1.0906086845410168 153 151 139 0.73951585008322063 15 5098 16 5258 28 5272 11 4387 36 4339 56 4396 37 4386
15232 -4.4198430441437493 1.1480874309341529 1.4185015071631943 122 117 111 0.68052243848011706 12 4043 16 5244 28 4258
15231 -4.4108459157760107 1.2210696827115994 1.1637945975870767 102 101 80 0.71196786066118534 15 5074 18 5575 16 5243 28 5257 11 5379 36 6042 56 5378 40 5304 45 5412
15230 -3.9136059389216542 1.9870343877125245 -2.0508227289188881 85 87 73 1.3837278595565705 16 5231 28 5244 11 6054 40 5279 39 4604 71 4314 43 4918 59 5233 82 5086
15229 -0.46364967026195147 0.62870117147100735 -0.1593367052350064 63 73 87 1.5048343408647731 24 8740 31 8143 33 7517 71 4882 43 4884
15228 -4.345812327003352 1.9605082990441163 -1.9918342404084735 70 89 74 1.1610674348390868 18 4936 16 5224 28 4218 11 2861 36 4277 40 2742 56 863 45 899
15225 -7.3706660744948174 0.73787752049901911 1.9981695486516959 58 52 56 0.62345966918326656 15 4029 18 3939 16 5185 28 5194 36 5330 11 5319 56 5319
15223 -7.7229180173434067 0.76728682353125344 1.7400178421630712 33 36 45 0.7792403675403804 18 4884 16 5176 28 5177 11 5306 36 5314 56 4246
15221 -8.4297882087844052 0.63925887214538857 1.9667538739448465 110 120 132 0.36592903476518213 15 4997 18 4868 16 5155 11 5290 36 6013
15220 -0.40467504625741718 0.42300370646972318 -0.11063150290711943 92 100 123 0.55763023453521732 16 5140 28 5144 15 4982 36 5274
15219 -14.068120886137764 0.13114929294380287 -2.3463662347647958 117 144 189 0.59506306999335479 12 4800 15 4883 16 5041 18 3741
15217 -16.807575949774762 0.30885341441772263 -3.79685897385 52 80 128 0.716029116850604 3 5319 12 4797 15 4880 18 4765 16 5033 28 5748 36 5179 56 5162
15215 -37.469045091484524 -3.9437554292893018 5.7435219534039454 155 180 220 1.4458033549922173 9 4760 13 4308 16 5022 11 4046
15214 1.3694950234456755 1.6884807283221672 -0.34737695969867294 60 48 48 0.31617496495253511 15 3357 16 4723 36 4770
15213 1.314560397396392 1.7249617748289727 -0.53016867874919837 198 187 195 0.39368938358303379 18 4484 16 4701 28 3457
15211 1.1348079497274113 1.3729125001710771 0.86218187551137071 11 1 0 0.57265672413741764 15 4582 16 4683 28 4715 40 4709 37 4838 34 3541 38 5529
15210 0.93893387561161457 1.8601262274308348 -0.79449529736322366 154 110 109 0.36690873148068992 15 4565 16 4657
15208 0.53187143598613629 1.701377427272724 -0.44298010630259699 70 71 75 0.5314687609488199 18 4356 16 4573 28 4606 11 3360 56 3369 36 3337 40 3255
15207 1.2361625884186354 1.3464223843635041 -0.51987859755831345 10 19 18 0.22572693436749258 13 2590 16 4571
15206 0.5137380562824807 1.6735730143602356 -0.41362224534989167 184 185 190 0.064602582894015576 18 4345 16 4565
15205 0.45499960042437704 1.722937470890207 -0.60580581522630161 167 169 181 0.94764955373864512 15 5289 16 4558 56 5605 40 4575 45 3304 70 3687 11 5594
15204 0.40320141759960837 1.8292545008599579 -0.91547034209538225 190 197 192 1.5546438217508611 15 4460 16 4553 28 5445 11 5590 36 5594
15203 0.33858222412584527 1.6162527589958851 -0.11554279567723316 168 168 177 0.088533289127945933 15 4453 16 4544
15202 -0.24987577236886563 1.6048680182567032 0.089696818077698914 69 72 51 1.0320990625543505 15 4421 16 4525 28 3219 40 5520 37 3256 37 5633 40 3207 62 1349 55 1139 79 1125 39 2726 53 1209 71 1166 59 1301
15200 -0.52334589815744104 2.0638743834739288 -1.250332047560951 112 121 118 0.87252386473616728 15 3056 16 4520
15199 -0.34192936267715518 1.1950077557491565 1.46491141246699 90 84 96 0.47838005193652644 12 3042 16 4519 56 3327 61 3122 34 4703 38 3270 62 4414 79 2801 29 876
15198 -0.29485756282289743 1.5245013639901284 0.16334635787492099 188 186 208 0.12328612424569885 15 4411 16 4513
15196 -0.36080378846472921 1.5395336237538875 0.099300407336892854 207 193 219 0.90931406430541983 36 4586 56 3291 34 1452 11 3285 15 4399 16 4501 28 4533 61 1286 79 2672 38 1370 55 1104 53 3842
15193 -0.58481484347271584 1.9207688873270554 -1.2698865765297251 86 91 39 0.87820626425402459 12 4302 16 4483 11 3250
15192 -0.75056554516405716 1.1956416563972929 1.3182071349219069 208 199 202 0.36104803395546892 15 3007 16 4474 11 4593
15191 -0.59013584124017548 1.4130682853310192 0.061078634509509983 140 111 129 0.72458268958057581 21 5534 16 4455
15190 -1.0410835102085523 1.1534784944375038 1.4738579480348881 182 193 203 0.31618655316822714 12 1183 16 4453 28 5390
15186 -1.70338730041499 1.8231928770860304 -0.74141942679003359 81 77 76 1.283724148133556 2 5432 16 4415
15183 -1.8483719634578664 1.9974266869919297 -1.7829425291678829 187 207 195 0.1827619821344221 15 4274 16 4367 28 4381
15181 -2.6412337181606529 1.4627621868573757 0.71385114676828465 180 182 197 0.60306757174818792 15 4245 16 4351 36 5482 11 6118
15180 -2.7356634613590773 1.7887573703482547 -1.0684374175028506 157 142 128 0.26297717178077434 18 4109 16 4304 28 4323
15179 -2.838268578829366 1.1934733592773579 1.0494187550874852 47 63 53 0.35878107355220051 15 5119 16 4299 28 5296
15177 -0.46918842583343912 0.91639929357476502 -0.0088123644583350657 98 89 108 0.5791477645818075 9 4019 16 4276 28 4305
15175 -4.0774918448903019 2.0286563731989551 -1.9340502770080676 87 89 76 0.37941228697208246 12 4060 56 4330
15173 -5.4613656021463228 0.74681896897354527 2.5730771662798357 182 171 165 0.91712336119786042 15 4077 18 4924 16 4171 28 5866
15172 -0.36996839360435818 0.63255655823912604 -0.2739347734374703 86 94 105 0.056767741851482742 18 3965 16 4149
15171 -0.5743032424334904 0.65829125932275656 -0.31228263707744369 63 67 92 2.2740565927434395 6 3740 15 4046 16 4148
15170 -0.36035736180883648 0.59349022293090103 -0.18147331651487369 14 6 24 0.48410030464475406 15 2536 16 4144 28 2707
15169 -7.2720524403153748 0.73416950853280571 2.2027998771083985 139 119 128 0.39329832264228093 3 3857 12 3952 16 4136 28 4155
15168 -6.9494254785874778 1.5697372336405395 -0.9829267202531542 201 178 186 0.27415638014684524 15 4040 18 2555 16 4131
15167 -6.9494254785874778 1.5697372336405395 -0.9829267202531542 201 178 186 0.27415638014684524 15 4039 18 2554 16 4130
15166 -7.6421171353706638 0.63027077250218333 2.3328542119776472 118 121 126 1.0454587730633675 12 2566 16 4114 28 4135 11 5308 36 5321
15165 -7.4765621345466995 0.73410784058376355 1.9597563665679623 121 123 124 0.75575267746951291 18 3930 16 4113 28 4139 56 5314
15163 -7.7897951747983791 1.7861204765074357 -1.7703999695954726 123 129 121 0.51291283760599715 9 3869 16 4099 3 2485 28 4130
15162 -8.2696378729577997 1.8358337551723538 -2.1988394186703157 117 124 140 0.13323551697514946 18 3890 16 4065 15 2465
15161 -9.043871514613846 1.428851416352229 -1.5816360627862982 108 109 129 0.98446316762514641 18 3854 16 4026 12 3868 28 4055
15160 -13.151935169343181 1.2024265808487813 -3.4249539292744906 171 185 211 0.36655046390296503 12 3783 15 3833 16 3948 18 3776
15157 1.9447362436189992 1.7353837039782758 -0.50282721632974048 210 200 191 0.65880477265980142 18 2118 16 3804
15156 1.4617132651406815 1.7209653952478461 -0.37223568774167343 207 199 196 0.65262764019040853 15 3401 16 3553
15155 1.2836593133937801 1.4056861604466631 0.61964977820298051 112 86 73 1.329359108309923 3 3171 16 3496 28 1796
15154 1.1377382569852887 1.3518296042571702 0.8458523726105357 249 211 212 0.95945691825648982 15 1603 16 3465 28 1730 11 3524
15153 1.1346248881235808 1.3485246416964272 0.85499227895904384 28 5 5 0.2954382104438128 15 3248 16 3464 28 4709 11 4813 56 4784 40 3445 45 3514 37 1848 34 1864 61 3269 62 4487
15151 0.96521228687617888 1.5850861546069746 0.048999840792940785 53 60 51 1.0705375535624506 18 1535 16 3420 11 3465 28 4676 45 3421 37 3382 61 3165 39 1268
15150 0.48126955153499174 1.7238477240321433 -0.60439655342611376 0 0 0 2.889528544369071 19 2106 29 1077
15149 -8.8055852721474626 6.0535680448573341 1.9829617552390153 164 175 195 2.5141286140400343 13 1068 16 3324
15147 -0.16485441055529287 1.8643278881629417 0.066115295193010501 67 74 56 1.1428750377857166 18 1337 16 3300
15146 0.34140212434222639 1.6403977990831291 -0.12543640037137002 188 186 200 0.45579261994725484 15 5288 16 3292
15145 -0.47299733765489466 1.6421680458756567 -0.20234206240919614 82 98 111 0.20358144600238587 18 4281 16 3215
15143 -1.0158809580138946 1.2211282890645685 1.3608536132714173 11 9 22 0.75519172989820582 15 2993 16 3177 11 5544 28 4503 56 6135 36 6534 40 6514 45 6572 37 6910
15136 -0.39278000727680817 1.2862315839289025 0.1067450827766714 233 224 244 0.23898320427644071 18 1164 16 3134
15132 -0.42258734557498667 1.2275416770886924 0.10490256177694669 9 6 27 0.21184095916771567 56 3168 40 3078 45 3153 37 4533 11 3184 34 4558 15 1107 16 3111 36 4514 38 4456 61 4299 55 3928 62 5224
15130 -1.973334195442054 1.8657996233642151 -1.1591520415929124 148 162 129 0.16269383115642619 3 2833 16 3038
15128 -2.0521273238857183 1.8463433965216329 -1.1063897755584251 93 133 89 1.1151293990798337 4 4005 16 3026 56 3038 15 4264
15126 -2.2924576147045892 1.8853224168702436 -1.267467688634047 114 113 108 0.0076566506020216071 12 2850 16 2996
15125 -2.2800191072976697 1.9866739038616041 -1.6797261685328719 30 42 21 1.3422599032636018 15 4233 16 2993 36 2971 56 2994 40 4310 37 4377
15124 -3.1588438138265187 0.9886938660058805 2.0444192682849991 89 91 103 0.3102275937891914 1 408 16 2941 28 1036
15120 -0.37421343400585116 0.82455586459503982 -0.098167653050275597 199 204 210 1.1029490247154037 4 2416 16 2862 40 2783 37 955
15118 -4.1947516809135914 1.1513736496331641 1.1898647411059804 102 93 88 0.52553055032113283 15 2639 18 819 16 2843
15116 -6.4849185061301959 0.9976969152737134 1.6875094805006001 117 71 125 0.33565365430090099 5 339 16 2748
15114 -12.593538985932161 1.7435460980481829 -3.0835442545959149 154 170 204 0.75012851532162805 12 3835 15 498 18 3837 16 2576 3 4751 28 2538 11 2634 36 2574
15113 -13.240831083267196 1.7049580163397444 -3.3413141988105974 99 121 162 1.0434786152945903 12 3819 16 2550 3 448 28 4019 11 4155
15112 -14.610838876096924 0.27005061472239622 -1.7520850828122307 139 160 189 0.0059164441252154204 9 101 16 2417
15110 -13.03477331193101 0.36819817888737838 -2.2273196987809842 28 54 87 0.32968144703888586 3 2215 15 2210 16 2406
15109 -12.998479346310628 0.85482567545459553 -4.2028940188725468 131 151 190 0.31330194884832602 12 2267 16 2386 18 86 36 74 45 81 38 154
15108 1.648309782014447 1.9551094053822264 -0.50581237232213572 150 146 143 2.1404352671284625 14 1698 16 2165
15107 1.8545540643475351 1.7258568143467954 -0.48180451715489103 44 33 29 0.86489721178170942 3 2077 12 3609 16 2154
15106 1.5297732466563219 1.7164771504187211 -0.46361762280143487 73 60 43 2.0214841181626038 14 1423 16 1994
15105 1.5420205490838244 1.7154800768406773 -0.47420486566043474 44 31 14 0.30309772175768801 3 1793 16 1992
15103 1.5214846660391363 1.4486156016122436 0.040079152780930112 88 85 86 1.3069976467877871 3 1652 16 1894
15102 1.2783979453608239 1.4761959634390758 0.53245664224709621 169 107 118 0.067181373503942127 3 3182 16 1883
15099 1.4384002374046829 1.4107236132511469 0.15819606389208343 159 122 116 0.52320754373841349 18 1636 16 1826
15098 -1.7032987079918649 3.4309353803801321 0.95505403580796211 91 86 87 1.0807577836358075 15 1668 16 1814
15096 1.1398294642126958 1.3671924198351002 0.85280623182751125 223 198 194 1.2520425375026478 28 1741 40 3451 37 3496 38 3401 62 3267 55 2938 39 2924 79 2896 53 1442 71 1361 70 3797 15 1621 16 1786
15095 0.79916744286576935 1.7113233161602071 0.36709328053941764 149 143 145 1.5338180362522078 15 1611 28 1716 11 1776
15094 0.93933573683412497 1.4022156679012276 0.67788392169907863 76 58 46 0.018040543382748651 15 3208 16 1695
15093 0.83166706555018688 1.5299890886438634 -0.033909263250296119 190 190 200 0.00045196725917395059 29 2752 16 1621
15092 -0.061321160670303874 1.9568878690867373 -0.1513322946825498 168 166 177 0.88008890716791721 15 1388 16 1576
15090 0.49880053419478498 1.5391633035332464 0.06444723887618109 162 166 151 0.32869334523443988 18 1346 16 1532
15089 -0.39575749423202544 1.1926822403278434 1.4653404497627291 0 0 0 0.029680713160459827 9 1179 12 1299
15088 -0.34916961565231092 1.188560274747763 1.4053651222884451 82 79 90 0.26780875119112291 15 1263 36 1448 16 1451 56 1447 40 1445 45 1540 37 1542 34 3345 61 3110
15087 -0.40289931433252762 1.5825738749008094 -0.032094579314868941 17 6 23 0.35389677904226324 15 1255 16 1437 18 2998 28 1394
15082 -1.022137179093864 1.1712651644131686 1.390504902418944 77 82 102 0.28702825704851431 15 1164 16 1354 28 1337
15081 -0.39104505188967337 1.3134549052538607 -0.056907553797052916 21 4 25 0.32545846375662552 18 2918 16 1322 36 3163
15079 -1.4970834101705228 1.1603799721222139 1.5989698343045127 225 184 198 0.51513897892182436 14 606 16 1297 11 1344 36 1307
15076 -2.1942343604000198 2.0495387337986153 -1.8904767891458738 57 72 55 0.97408086283988682 15 2839 16 1108 37 1062
15074 -0.37014492433398938 1.012409154807032 -0.060895840459997908 66 55 65 0.18867183461359571 12 967 15 910 16 1075
15072 -0.54952203534524169 0.96825651513547106 -0.06569445421431272 89 88 104 1.8343535188604081 13 498 16 1005 28 997
15071 -3.0922859486923548 1.6525522345082706 -1.0538838065533775 182 183 201 1.3411247512326931 3 798 16 950 28 938 11 937 38 4280
15067 -4.5699362205586853 1.7595315569996093 -1.1174462246680277 139 79 153 0.1371384763707178 12 2710 16 871
15065 -0.43497198232652912 0.63127216629598792 -0.076993866951856477 167 150 182 0.043190970045680038 15 672 16 796
15064 -5.2542393392566611 1.744634837901248 -1.5705737677220932 103 103 101 0.68573980048484162 9 638 61 758
15063 -5.2361818274161829 1.9509738888496384 -2.2795548801136514 167 159 156 0.036588793325655525 12 741 16 794
15061 -0.54486019296431787 0.66291547523183192 -0.26220938084122247 17 9 25 1.0283044131441668 6 373 16 775
15060 -6.5715026566465946 1.0657311077981941 1.1253800107679959 162 141 150 0.46838844005383118 5 318 11 786 16 773
15059 -6.7339974029431584 1.1416436030977517 0.79921053927398056 177 131 172 0.76053203313159823 2 3583 9 578 16 769
15057 -3.6188189583589567 0.77705465245231475 0.27578660550261624 113 87 90 2.8840567835676358 1 1915 16 710
15056 -7.6801762187780387 1.8024876122903455 -1.8367152636426298 132 139 121 0.30265165831831292 9 540 16 708 28 708
15055 -6.9616708180759685 1.3885504490515836 -0.83543330131196347 81 91 83 0.29844495202110188 15 603 18 625 16 696
15053 -12.937100034352708 1.1445822737147999 -2.4031148282164367 158 175 205 0.36398524448527259 3 396 16 515 40 502 45 508 61 454
15052 -1.2572722204485867 0.54126595748361028 -1.2801155561812461 24 43 75 0.30517760269021088 12 458 16 513
15051 1.5159769321475804 0.29397106863476041 -0.67165338987800027 173 193 218 0.0044134482287473921 15 431 16 499
15050 -1.4993861031064437 0.55365132661707739 -1.3505791552686672 173 193 218 0.16928548889475442 3 400 16 498
15049 -13.011951033928954 1.1415470586618648 -2.5837716097611452 14 33 50 0.24411453129774799 9 2274 16 488 28 496 38 479
15046 -5.0101651959297433 0.42402532474243543 -1.4415058248957857 73 88 119 0.54209197520446262 12 195 16 251
15045 -0.48777976292869302 0.48043712532304278 -1.580992872494194 138 147 186 0.12437573595540868 15 180 16 216
15044 -17.016190538806939 0.18519291555618936 -1.2958654520502271 19 42 83 0.22222563613336935 12 148 15 143 18 166 16 186 28 201 56 153 45 193
15043 -12.953894449931848 0.41906957581346843 -2.0293133309738223 51 66 95 0.42646395493049738 4 73 9 114 18 142 16 167 3 113 15 128 28 180 11 167
15042 -13.011267457339283 0.44774216982931314 -2.1256826184563113 41 56 87 0.28421729069244012 3 2242 18 2209 16 165 9 2191 28 192 56 2414 45 2459 34 2499 61 2228
15041 -13.097911661905648 0.98006129028430222 -4.1599764815662628 53 68 94 0.14331099794165356 12 113 16 145 11 136
15040 -16.975091479177699 0.032711093299329488 -1.3957816310070941 100 124 168 2.0946204392936707 3 82 16 119 37 84
15039 -12.888417536040123 0.43915526604914085 -2.4537039951152049 63 89 116 0.022560212199866585 12 87 16 117
15038 1.9648666611086079 0.19297755966206015 -0.56945602087938674 28 51 83 0.095687646130474258 15 89 16 103
15037 -12.81654859427784 0.88253208622364632 -4.1187295319718533 47 68 99 0.27010940485443968 12 75 16 93
15036 1.5258727788794508 0.22125076074400293 -0.70484709468832385 2 27 65 0.070824817238087229 15 2209 16 92
15035 -1.3262169242076722 0.31367579805200552 -1.273452798944861 141 163 202 0.16676880745576381 3 74 16 87
15033 1.3053377845360219 1.3082960788383102 -0.55104788622132572 0 0 0 0.29612259133568558 14 6244 18 6683
15032 0.43764981824693322 1.7571416650417184 -0.61324940096570624 64 73 68 0.12739186938508049 12 6297 18 6404 15 6389
15031 -1.6572306579095173 1.7759312409819565 -0.78079552383155615 0 0 0 0.12801811849067021 12 5675 14 5577
15030 0.71061125566492922 1.6475319655634566 -0.57723715733713954 179 180 198 0.51743904827121323 18 4360 15 3127
15029 -0.81633555440280847 1.4291502830983867 -0.053028787326361841 0 0 0 0.69867931411652739 20 3188 25 4411 10 3316 27 2846
15028 -0.28390734452946059 1.3330418018583929 -0.74037242710888196 184 175 178 1.3535583610755224 18 2871 15 2895
15027 -2.3432225467071799 0.53506846711150347 -1.5190433496718043 161 177 197 2.7964634354608826 9 2233 15 336
15026 -6.4974623310586255 1.6147328853204352 -1.0693462817972845 135 122 122 0.88106004133417815 4 3777 3 3864 29 4559 1 4943 15 2531 9 2464 18 3955 16 2725 28 760
15025 0.80269459532608323 1.723644069225253 -0.65513959385961007 185 195 185 1.5321246152926213 15 5314 3 1441 12 4415 18 3172 16 4595 28 4632 11 6217 36 6175 28 6021 56 6165 40 6132 45 5634 37 6255
15024 -1.9999645648403179 1.7629669632676395 -0.25448653499609802 146 148 140 1.0140815528374967 6 4938 2 5418 23 5485 13 5236 14 5199 1 5061 9 6001 3 5929 12 6055 18 5636 15 5747
15022 -8.9033686146205699 1.2681493246185063 -0.75310278505164752 121 117 126 0.96718288539131714 3 3787 18 3862 15 3933 9 3822 12 4869
15021 0.95125311381875699 1.5901481703234652 0.064294471902621664 195 199 199 1.460110771527884 9 1455 18 4425 15 3224 29 1186 12 3241
15020 -1.2796143077620714 1.2612859713479734 1.1282503935317381 35 37 35 0.38988111112822282 1 2265 29 2473 15 2943 9 2824 3 2862 12 2947
15019 1.4222092119235905 1.5513550988700702 0.13318499728798142 180 2 160 1.4869319062556285 18 6656 15 6828 28 7071 11 7258 36 7238 56 7281 40 7250
15018 -0.43724846972392845 1.425206274583924 0.23245492614229929 23 19 44 0.39788857141216 18 6679 15 6817 16 6979
15017 1.6909058651363051 1.5465493301583457 0.12951964288989076 169 0 160 1.5949135630661317 18 6659 15 6786 16 6900 28 6990 11 7177 36 7167
15016 0.36242922560086471 1.5927747391223457 -0.29042152760021733 101 121 110 1.1629906391967155 15 6773 16 6984 28 7065 11 7252 36 7233 56 7274 40 7286 37 7404 34 7355 61 7022 38 7116
15015 -0.44614962842005756 0.50960816088892846 0.04643302663206051 142 118 118 1.7642049808532692 18 6624 16 6923
15014 -12.802120956413408 1.3801854419877959 -2.3948343200814524 35 63 102 1.4467055552830785 3 6558 12 6637 18 6562 15 6749 9 6600 16 6919 28 7009 11 7127 56 7135 45 7258 40 7218 37 7346 34 7307 61 6895 38 6999
15013 -17.57885954362029 0.51054390389807214 -1.1700957416325601 96 120 166 0.9311169136041596 3 6557 12 6636 18 6616 15 6748 16 6965 28 7051 11 7238
15012 -14.675419795013422 0.062157877120346747 -1.8673344468521571 41 67 119 1.0839343449527403 16 6861 28 6929 11 7124 36 7110 56 7130 40 7135 45 7181 37 7251 34 7301
15011 1.8485382974432916 1.3543611584365907 0.4519411702925385 150 134 82 2.2091426063502424 15 6735 16 6848 28 6796 11 6979 18 6599
15010 1.5348525991544479 1.5630046847883419 0.13259324623339258 136 8 101 0.82215797847239025 18 6593 15 6727 16 6896 28 6892 11 7087
15007 1.2711699491760815 1.4642827548001696 0.49891993356218206 217 191 200 0.80416594032008026 15 6647 28 6885 11 7076 36 7076 40 7093 45 7145 37 7212 34 7168 61 6843 38 6942 62 6813 55 6404 39 6249 9 6549 83 2376
15006 -0.3554109125444701 1.6686951144627364 -0.13339893821695858 72 78 66 1.8270010159884604 15 6634 16 6676 28 6744 11 6792
15005 -0.3952628902043111 1.1321383821996724 0.027091359905196084 201 202 216 0.20345615852721419 18 6503 15 6623 16 6804 28 6859 11 7049 36 7042 56 7051 40 7045 45 7102 37 7171 61 6919 38 7027
15004 -0.39582653484057295 1.132200325731906 0.027022548121901978 201 202 216 0.22643381874438998 18 6502 15 6622 16 6803 28 6858 11 7048 36 7041 40 7044 45 7101 37 7170
15003 -0.44754046389168978 1.1109361696521125 -0.14645035876541504 94 95 116 0.58290428170417663 18 6497 15 6616 16 6663 28 6727 11 6919 36 6902 56 6926
15002 -0.47275280548946308 1.0365376784646707 -0.1843154086546363 187 178 195 0.50590435756583285 16 6791 28 6847 11 7037 36 7029 56 6924 15 6610 18 6490
15001 -0.38917486261361989 0.93605407862117729 -0.25479520894481744 31 32 42 1.2123170461577755 18 6489 15 6607 16 6661 28 6726 11 6761
15000 -0.40101931101599475 0.82662072563805022 -0.060376002962193503 203 203 217 0.13543289676519676 18 6486 15 6605 16 6787 28 6844 11 7034 36 7021 56 7036 40 7027 45 7085
14999 -12.939637970582321 1.212257793025457 -1.9140341060635966 37 60 102 0.65101898509349498 3 6405 15 6580 16 6764 28 6818 56 7015 40 7005 45 7071 34 7103 61 6785
14998 1.7090135072690731 1.5068820271977614 0.25203014706991 68 51 23 0.84682086715978677 18 6435 15 6553 16 6728 28 6792
14997 1.6333430807733105 1.5425192871830211 0.10462986829583974 160 75 96 0.78917960844498003 18 6430 15 6546 16 6720
14996 1.5062681287506683 1.4417823151657039 0.065756969740596097 197 183 180 0.8453751821461708 12 6431 15 6537 16 6704
14995 1.1680691862927177 1.3983718694200979 0.76924079223659758 198 177 166 0.41364561430891811 18 6414 15 6534 16 6701 28 6770 11 6949 36 6929 56 6960 40 6939 45 7007 37 7063 34 7036 61 6743 38 6830 62 6692 55 6209 39 6142 79 6219 53 6012 71 5841
14994 0.58011990891480636 1.3551096312636888 0.9126417600177078 108 121 102 1.7414315103355975 3 6463 15 6524 16 6822
14993 -0.26403155668854694 1.3084460583255972 1.3653428303977018 118 130 116 0.97954704018401018 18 6399 15 6518 16 6680 28 6749 11 6934 36 6759
14992 -0.27155681833172052 1.2477485889449325 1.3820146070369295 59 67 47 1.2537657321648394 18 6398 15 6516 16 6678 28 6748 11 6932 36 6913 56 6945 40 7077 45 7124 37 7189 34 6853 37 7048 61 6730 38 6821 62 6535
14991 -0.2318103891667867 1.2226134446237706 1.428656126096967 189 190 174 0.90146155608891321 18 6516 15 6515 16 6819 28 6876 36 7059
14989 -0.60901395784370838 1.8377172200861707 -1.4440871532842294 103 96 88 1.5400506091275623 18 6389 15 6509 16 6544
14988 -2.6480579792720822 1.7389683014386206 -1.2886731113831031 60 68 47 0.44207410036342987 18 6382 15 6499 28 6725
14987 -10.101248262149193 0.20981936909954704 4.5107237113530578 74 87 104 0.7719660712777574 12 6382 18 6223 15 6491 3 6296
14986 1.6011859474080181 1.7092978657205464 -0.62085224694239227 171 169 172 1.450764860813462 18 6137 15 6428 16 6711
14985 1.5671340623903727 1.4748347247006772 0.38141623823792686 160 16 129 0.95758569541531946 18 6325 15 6426
14984 1.3442837778473973 1.3856405127242897 0.7353497326374604 148 69 101 1.5223577630712448 18 6311 15 6414 16 6706 28 6775 11 6832 36 6935 56 6965 40 6946 45 7012 37 7072
14983 1.2060819055790011 1.4436638498357586 0.57366000891116431 167 119 125 0.257011590610702 3 6218 38 6676
14982 1.1418625342863051 1.366803244564152 0.8394272029640939 210 194 179 1.5247246088554338 18 6307 15 6408 16 6369 11 6612 36 6583 56 6595 40 6559 45 6609 37 6690 34 6644 61 6356 38 6447 62 6296 39 5745 79 5827 53 5853 79 6045
14981 1.0444006884719033 1.6788079783862462 -0.31470685537442838 20 37 0 0.21188935450658949 12 6312 15 6405 16 6569
14980 0.74362536347339547 1.7453147831430249 -0.60179820122298744 37 60 16 1.0407958591980493 18 6294 15 6395 16 6689
14978 -0.42422017913908211 1.168374364277774 -0.16571394089722324 200 195 215 0.63687354855001133 18 6384 15 6363 16 6534
14977 -0.61812230178989336 1.2269853806944375 -0.31151766518717905 95 107 93 2.8139069463933293 29 5946 15 6362
14976 -2.1747786675278769 1.736504121471955 -0.92203851780495583 150 130 137 0.43329966990904367 12 6269 15 6359 16 6266
14975 -3.1063503954249789 1.6091772379208842 -0.92497429299419631 130 105 124 1.604851561698684 18 6252 15 6347 16 6521 28 6570 11 6914 36 6896
14974 -12.655170051757269 0.6606709191972211 0.99116846835957417 137 129 144 0.84647720431724582 12 5965 15 6324 3 5853 9 5925 4 5775 29 5627 16 6213
14973 -16.596837828031681 -0.37118733328577447 5.2211639540395387 66 81 120 0.96875105346859447 3 6294 18 6215 15 6322 16 6640 28 6549
14971 -16.811715627337932 0.027045161547521936 -1.1282141785439248 110 134 179 1.2709903505680773 29 6059 15 6302 16 6633 28 6813
14970 -12.587819125469226 0.47932035555778491 -2.546884775467547 90 116 149 0.38668519458409145 3 6096 9 6367 15 6300
14969 1.7797773033406434 1.5607023209621971 0.069682350866984558 158 61 138 0.59072726294422095 18 6158 15 6251 28 6470 11 6668 36 6332
14968 1.7249653940653058 1.5620388468538755 0.087958103989278433 160 45 112 0.25371041024637636 12 6333 18 6328 16 6729 28 6659
14967 1.5588777949731292 1.3909759483102988 0.59888976484453238 122 75 65 0.63098392549698623 18 6124 15 6222 16 6585
14966 0.62934791705046056 1.7674039635552947 0.89745749499210115 169 121 119 1.8782074698733524 18 6112 15 6203
14965 -0.51045753498168933 1.7212881197283287 0.42752544781245455 128 132 124 1.652520969095292 28 5999 11 4637 15 5807 16 6332 40 6121 56 6557 18 6061 38 6021 15 6164 62 5322 73 5184
14964 0.10494412839794194 1.8661386546897714 -1.2294239737434136 64 63 43 0.74535781982051963 18 6062 15 6163 28 6363
14963 -0.44200685364553188 1.6817393550124995 -0.15698938863334386 60 66 54 0.85260650853136355 3 6331 15 6161 9 6270 16 6325
14962 -0.64878898220256009 1.4516628883694023 -0.20458890177672365 35 52 82 0.61377118329103841 12 6282 15 6146
14961 -1.5294863104464542 1.1688376906263802 1.1789281380523025 153 135 133 0.40269447894053517 18 6035 15 6134 16 6284 28 6325
14960 -0.38680603461238994 1.1582838591516507 -0.078667185078093865 48 9 30 0.22252290159551369 18 6034 15 6133 28 6318 11 6533 36 6506 56 6499
14959 -0.3874041216814138 1.1585585021828109 -0.078789279000826232 48 9 30 0.22190571749661464 18 6033 15 6132 16 6279 28 6317 11 6532 36 6505 56 6498
14958 -0.517686880328732 1.2392838276604197 -0.24209573511242313 147 141 129 1.4919973528861903 12 6052 18 6032 15 6131 16 5885 28 6316 11 6531 36 6081
14957 -1.6229509188807101 1.8856988186283807 -1.458397881714242 197 209 209 0.35167796269221668 18 5627 15 6130 16 5882
14956 -1.9794470058018934 1.1648399658488702 1.2057734341662918 114 106 83 0.795085263792917 12 6044 15 6124 16 6269
14955 -4.3512620298490106 1.9840582769597126 -2.0607194555278348 172 179 166 0.80512830504228872 12 6256 18 6244 15 6102 16 6239 28 6279 11 6503 56 6031 40 5988 45 6041
14954 -5.1292288144834988 2.0041349407997506 -2.1958107585060351 195 180 180 1.8868868982828968 12 6248 18 6234 15 6099 16 6237 36 6471 11 6501 45 6035
14953 -5.0708968217205479 1.9961583939022394 -2.1828953818122798 195 180 180 1.5010154551877857 12 6249 18 6233 15 6098 16 6236 11 6500 36 6470
14952 -8.030385660895659 0.36208521777745878 3.3370760331360394 147 129 153 1.613792960297755 12 5994 18 5985 15 6090 16 5806 15 5652
14951 -7.0558089458400524 1.8077919568442602 -2.3634247975998401 163 185 103 0.32743331954366178 12 6003 18 5984 15 6089 16 6227 28 6261 11 6480 36 6455
14950 -7.4842298021436724 1.8905234924064855 -2.5853290738914207 122 150 66 0.47817355793569294 12 5997 18 5982 15 6088
14949 -7.5484496139689981 1.6320894624398516 -1.8353697805273099 79 89 101 0.55386385558165874 12 5988 15 6082 16 6224
14948 -11.779396803099239 0.45274651226200802 3.7730579055786824 162 152 163 0.79034776735697287 3 5375 18 5977 15 6080 12 5533 16 6223 28 6556
14947 -13.675614893116103 1.3368286694056206 -2.889295268375959 32 47 80 0.77679199857376369 3 5849 18 5951 15 6054 16 6196 28 5777 11 5977 56 5200 15 4921 40 5141
14946 -13.764921062883321 1.3470680562046939 -2.905387149860077 32 47 80 0.45343686117965559 3 5848 18 5950 15 6053 28 5776 11 5976 36 5961
14944 1.1495350852929536 1.6441931736144122 0.41542013227540464 170 85 126 0.35358255138548289 9 4398 11 6286
14942 0.9049230259460237 1.4517349521206753 0.43616079689665188 91 103 89 1.0670781791764186 18 6096 15 5860 11 6249
14941 0.94589272800399171 1.5333744072304636 -0.2705414117873598 36 51 74 0.82835841286309075 18 5189 15 5849 28 5468 11 6222 36 5629
14940 0.91122394785394234 1.575876256410474 -0.39517466325586559 69 98 132 0.1940538949147575 5 5377 15 5845
14939 0.91256160899621808 1.5335347947497946 -0.26133419565280797 188 186 197 0.53831066893044766 18 5706 15 5843 16 5993 28 6386 11 6597
14938 -0.26690753061076267 1.9817391879368642 -0.34785792772476681 175 184 201 1.4172098375562108 9 5656 15 5822
14937 0.36716347497931184 1.6914444491911849 -0.50061037893291671 183 190 206 1.7061152683553704 12 6090 18 5690 15 5818
14935 -0.37230597136704091 1.5215675256596817 0.2322987730527529 179 179 189 0.76703392223724576 18 5676 15 5796 28 5984 11 6185 40 6096 37 6231 38 5430 62 5294 71 5033 39 4794
14934 -0.35853436212279821 1.4982511041745841 0.15618994704605543 181 182 202 0.66151277125218266 18 5123 15 5792
14932 -1.1654375896519524 1.9054855377143269 -1.4557250005497522 147 136 140 1.2359866999949796 12 5705 15 5765 11 5492 36 5511
14931 -1.7642468435395193 1.4126017509491864 0.84743935027069384 90 88 75 0.57241844923987584 9 5582 15 5750 16 5910
14930 -1.7642468435395193 1.4126017509491864 0.84743935027069384 90 88 75 0.57241844923987584 9 5581 15 5749 16 5909
14929 -0.5056177665494912 1.1566986233014613 0.17471777658373303 52 52 70 0.56582103500388303 18 5629 15 5737 28 6322
14928 -2.2645573538769304 1.9845757721724127 -1.8609106861556459 93 107 87 0.42502659541003318 18 5610 15 5707 16 6263 28 5899 11 6095 36 6062 56 6057
14927 -0.54156924367734205 0.9669911016373649 0.080878123063014049 84 67 77 0.35553860493912542 18 5602 15 5704 16 5283
14925 -3.5223131367262179 0.9003083839801761 2.179528356812185 192 191 205 0.50404048197256635 18 5584 15 5688 16 5851 28 5884
14924 -4.9989656995155203 2.0072313338822267 -2.3215300033181663 157 172 158 1.3566742244466523 12 5574 18 6004 15 5670 16 6235 28 5861 11 6044 36 6033 56 6025 40 5984 45 6036 39 5184 79 5266 53 5069 71 4891 70 4913 55 5245 43 4907 59 5223
14922 -7.6831259558448384 0.65464875031404379 2.4245267691377448 58 57 63 0.65361387055152587 12 5549 18 5543 15 5656 16 5814 28 5841 36 6023
14921 -12.433156475461981 1.8542585637080604 -3.1362388425166912 77 88 110 1.1834336283733031 3 4758 12 5966 18 5505 15 5621 16 5104 11 5992 37 6023
14920 -12.86255624119927 1.5505223792073026 -2.7307665588358474 125 142 170 0.52764004513809803 3 5351 12 5499 18 4822 15 5616 9 5448 16 5092 36 5246 40 5161 28 5116 45 5260
14917 -30.141248149856487 -1.0192562650720725 4.3182564800391825 81 110 154 1.5399409262627988 3 5330 4 4643 29 5612 15 5595 9 4783 14 4336 18 2269 12 2355 29 3398 16 3942 11 5970 36 5213
14916 -33.920073745349299 -0.98796522049378399 4.2756050531509375 48 81 134 2.1322033988781852 1 5359 4 4642 15 5594 9 5435 28 5764 11 5971 56 4067 36 4023
14914 1.6675025800842005 1.6940003186879844 -0.4551573001771777 14 3 0 0.49854843182837166 18 4565 15 5469 16 5616
14913 1.5223151259232242 1.5231800420145738 0.23194618906194617 143 22 125 1.2135687791194765 4 5607 18 5296 15 5433 16 4757
14912 1.6878576410227781 1.5901388746734602 -0.58925608569626919 200 189 183 1.4659334801378225 5 1423 15 5430
14911 1.3036464065417024 1.683227816494645 -0.32030497030394178 134 124 132 1.4115504216050976 18 5271 15 5402 16 5556 28 5548 56 4768 36 4757
14910 1.3075922967813727 1.6787495138536921 -0.32113626861031142 134 124 132 1.1013955263131259 18 5270 15 5401 16 5555 28 5547
14909 0.93546489595314519 1.81114272252533 -0.43085575010835886 53 62 71 2.3071409064213322 7 5786 15 5364
14908 0.88818080223749407 1.5097634676606979 0.36837455895643417 127 124 131 0.71503065838385249 18 5209 15 5336 11 5647 28 6045 36 5665 56 5657
14907 0.95019021933088288 1.6238502862129314 -0.23915058489603752 95 119 143 0.77732550951270529 1 3745 15 5334 16 4638
14905 -0.39120373106442347 1.5521706057247076 0.28429755799996681 173 173 173 0.3881438812319839 18 5132 15 5259 28 5414
14904 -0.25349336671412903 1.5665992451924484 -0.073858939140390739 183 187 199 0.43671178810178485 18 5130 15 5252 16 5952 28 5983
14903 -0.41473273831474511 1.6417236199235508 -0.14925700918247239 147 154 172 0.54632514661857456 18 5127 15 5250 12 5147 28 5407
14901 -0.3370226209738133 1.3604084374229177 0.26955605402534094 60 63 78 0.45686279333778268 18 5107 15 5237
14900 -0.33702262097381724 1.3604084374229191 0.26955605402534177 60 63 78 0.45686279333772573 18 5106 15 5236
14899 -0.86369303172607959 1.2291375844735206 1.3173623367367004 73 70 81 0.57798341166880296 18 4243 15 5228 16 4472 28 4513 11 4592
14898 -0.99007140670110083 1.2129346092740569 1.3108091441689265 196 194 199 0.81146831392206731 18 5091 15 5216 16 6310 12 5704 28 6343
14897 -1.1108977898123891 1.9373801670397663 -1.3762424720474107 78 70 68 1.5561027493056467 18 5092 15 5211 28 5371 36 5520 11 5506 40 5445 61 4248 62 4236 70 3580 69 3261 63 3292 46 3194 76 4708 54 4533 41 2891 52 5469 87 5118 44 4963 72 4998 40 3045 60 4650 57 5287 57 5610
14895 -1.625220177847946 1.9290357724182987 -1.3413997986756654 152 128 132 0.61377204599290203 18 5061 15 5191 16 5335
14894 -1.7425786061409347 1.9874624830059342 -1.6677663292798397 140 152 152 0.98566880257436362 18 4188 15 5184 28 5338 11 4486
14893 -1.892738523214798 1.8415731202640082 -1.0684114655715085 145 142 130 1.1836924032725744 9 5588 15 5180 11 5463
14892 -1.7966738633645627 1.2589270225130651 0.7917682040237255 164 159 156 0.41143255889096864 12 5627 15 5164 16 5321
14891 -0.51816534615586951 1.1760183382751961 -0.25207115110430806 87 77 85 2.0286176522382897 3 4947 15 5162 11 5454
14890 -1.9097458109651781 1.6326088047437304 -0.5747840319506734 162 140 123 0.82713700429232295 12 4177 15 5161 16 5313 28 5321
14888 -3.00702352326197 1.6812823024504973 -1.0699378610223647 77 80 97 0.22863357423476441 4 4821 18 4061 15 5094
14887 -2.8024903634421499 1.6720321693050073 -1.2280745911951567 167 170 177 0.92332591745047043 18 4975 15 5088 28 2839 56 945
14886 -4.394805035726626 1.1672883130837708 1.1647513826610598 194 201 190 0.53131287904307334 12 4944 18 4942 15 5068 16 5238 11 5374 36 6039 56 6038 40 6440
14885 -0.50745728586400973 0.83214018518548671 -0.2681862595616214 45 3 45 0.1973496525888736 18 4020 15 5067
14881 -0.43206484205838513 0.61521910019721571 -0.07497543980446468 32 3 31 0.41959700243097808 18 4914 15 5040 28 5213 36 5350 56 5331 40 5249 37 6094 34 6054 61 5806 38 5863 55 5240 39 5180 62 5725 79 5259 53 5064 71 4886 70 4905 43 4888 59 5210 50 5237 82 5627 48 5589 65 5892 58 6131 69 6389 63 5880 64 6290 46 6335
14880 -7.4282083775148289 0.26389532303060825 4.1562341070449955 107 102 106 1.3855741447119743 12 4908 18 4904 15 5028
14879 -7.3658014777280396 0.79562890412491405 1.9584705059337795 154 137 145 0.8981215018439398 12 3950 15 5025 16 4134 28 4153 11 5327 36 5335
14878 -3.7994752082161294 0.59116833505708455 1.1554651468874668 154 137 145 0.07511886683121341 18 4898 15 5024
14877 -7.5701433452133973 0.681612033211632 2.2660124087944391 51 49 52 0.44796573479756457 12 4900 15 5022 16 5187 28 5840 11 6024 36 6021
14876 -6.7810195727295213 1.8135525590983044 -2.1586390137231684 36 45 54 0.27758118577354379 12 3947 18 3944 15 5018 16 5178
14875 -9.4582879917425924 1.3690269223563576 -1.2554584883609436 115 113 134 0.26062766868766524 9 4849 15 4967 16 5125
14874 -10.373701692000358 1.4054766859428207 -2.0573238928243938 103 107 132 1.1727179147365285 12 4851 15 4952 28 5123
14873 -12.150804204125414 1.6849422233106666 -2.6802590975251461 103 111 132 0.62026556124605547 3 4757 18 5502 11 5238 28 5792 40 5170
14872 -12.951350099803154 1.6113901287953047 -2.9219463275791542 150 169 199 0.68493421961082013 3 4745 12 4840 18 5494 15 4944 16 5090 28 5114 11 5225 36 5244 40 4026 45 5258 37 5300 34 5265 61 4982 38 4051 62 5665
14871 -13.33812551236454 0.15127855301702162 -2.2751923368299827 121 148 191 0.72330453507756309 4 1972 15 4884
14868 1.7447516696995065 1.5926929352398078 0.0063829954159520799 52 68 2 0.54992427120855703 18 4597 15 4727 11 3775 16 3663
14866 1.1752468665291773 1.7716484368503413 -0.67062784964904654 185 185 187 0.35953604368885489 9 4412 12 4484 15 4589 16 4679
14865 0.92379284936264805 1.807266843666717 -0.45528443650315598 64 71 81 0.61087916807426001 23 4152 15 4572
14864 0.90857712108688493 1.3967097647987849 0.79740147328962663 79 61 47 0.93155023279857474 18 4412 15 4544 16 4656 11 3479 28 3404 62 4469 39 4042 70 3781 59 4887
14862 0.8939847523754102 1.5687418901055217 -0.46540927160363343 188 198 210 0.69306313313011447 3 4270 15 4497 16 4584 28 1542 36 4658 40 4594
14861 0.62305837376296036 1.5281250532966506 -0.074498632373135337 112 113 128 0.58508120873678304 18 4343 15 4471 11 5600
14860 0.95686723186124845 1.3623396070942824 -0.35160537949159426 161 175 178 1.4643570601246827 23 2665 15 4452
14858 -0.2275316448401406 1.5823600557667405 0.069302854926803534 146 149 159 0.59473781893440503 18 3008 15 4419 11 4619
14855 -0.7841138283798661 1.5715235219280521 0.35793003462406425 0 0 0 1.7544727216326093 5 4750 31 4991
14854 -0.37385374824690659 1.389529675639408 0.022523083577953691 96 103 124 0.074650742766781408 18 4245 15 4361
14853 -0.40811972258058432 1.3122693836518062 0.2767754789326855 48 72 98 0.51857345473839744 12 1248 15 4351
14851 -1.0770477226280739 1.170848132883284 1.551121172825493 195 192 209 0.33478089196964461 4 2642 15 4340 16 4458
14850 -1.5373173241738263 1.2731742380783737 1.3447075999786864 182 192 169 0.31933497990635007 18 2900 15 4323 36 6529
14848 -1.5825053435952476 1.9348301031333552 -1.4426409759794832 159 191 173 0.40973826901970106 3 2873 12 4225 15 4297
14847 -1.8356973722207903 1.2833161501480213 0.75847603029650046 76 71 68 0.27146699859019191 18 4164 15 4270 16 3041 28 3028
14846 -0.41980537846329202 1.07002107153315 0.061066292288806646 5 6 29 0.096947969126398428 18 2805 15 4259 11 4482
14845 -2.2158624885273306 1.7678201567929219 -0.69828713547869492 171 146 136 1.9215065426093805 5 5284 13 5208 15 4257
14844 -1.939312425582987 1.6232597678269993 -0.53555096204281738 152 135 117 0.57578804778774373 3 4043 15 4250
14843 -2.2387771314050067 1.1351844991516784 1.5536039109157844 90 79 85 1.7346051015511681 12 2841 15 4248 16 4355 28 5337 11 5475 36 6082 56 6094
14841 -2.3218214013111331 1.9542065096781214 -1.5648877989104462 65 85 60 0.89996776423226044 18 4147 15 4221 16 4334 36 2967
14840 -2.4023196586751885 1.8022767657693461 -1.1591553204180558 177 171 159 1.0514505947108053 18 4123 15 4203 16 4321 11 3021 36 4375 58 3021
14839 -2.4023196586751885 1.8022767657693461 -1.1591553204180558 177 171 159 1.0514505947108053 18 4122 15 4202 16 4320 36 4374 11 3020 58 3020
14837 -0.60442438099501228 0.91680873573164112 -0.2282879132807151 0 0 0 0.68311800027743985 35 5405 22 5491 17 5362 30 6773 32 6809
14836 -0.41245798515325532 0.91444549645976658 -0.20943331092954148 150 118 123 0.18527487544602433 18 4062 15 4154
14835 -4.2203177895492949 2.098105841659248 -2.3858660255752659 95 102 95 1.4454260769890237 18 4946 15 4114 16 4215 36 4284 40 2746 45 2850 37 2836 34 2864 39 3684 16 4212
14833 -5.4102412577136922 0.8029045673564037 2.8298523736123231 152 166 170 1.2601136238865789 3 712 4 2347 15 4101 9 2537 16 4206
14831 -0.3822563886502271 0.74101787215659232 -0.17626321384949509 135 91 111 0.094656364462827519 13 3494 15 4088
14829 -5.5636107651087121 0.75247643107436635 2.6139471468587052 180 162 160 0.67606374043425832 12 2655 15 4076 16 4170
14828 -7.4291087319433986 0.76715272320504879 1.9037715352333446 47 45 48 0.52334689312938998 12 3942 18 3936 15 4023 16 4123 28 4144 11 5318 36 4223 56 5318
14827 -7.4060967305375485 0.78685859958747284 1.791514375118642 62 56 56 0.4595864600549589 12 2581 15 4021 18 2530 16 4121 28 4141 11 4278 56 4259
14826 -7.6669881947850289 0.63273191170921117 2.3376745267299839 105 115 117 0.91069029269892909 12 2567 18 3915 15 4013 16 4115 11 5309 36 5322 28 4136
14825 -7.534979343514232 0.6973870517013242 1.9587790259321034 109 120 119 0.81001368816949981 1 3236 12 3923 15 4000 28 5183 3 3830 11 4268
14824 -7.5178459669859716 0.72169703668571583 1.9596665907670885 109 120 119 1.840436866742365 3 3829 15 3999 11 4267 16 4112 28 4138 36 4221 56 5313
14823 -4.7312976137033358 0.65552601027429513 0.94531485395160775 36 50 59 1.1534758155295839 14 4413 28 4118
14820 -8.6877725877603513 1.4679496683203097 -1.8503288283300476 107 122 141 0.52242529050674813 12 3864 18 4850 15 3924 28 2577
14819 -12.890595573109751 1.7116293503701263 -3.1752643012982715 26 45 89 0.9527930001503101 3 3750 12 3825 18 4823 15 3891 11 4165 36 2552 40 4032
14818 -13.145290375449532 1.4240521370244763 -3.3654674720917042 156 173 203 0.74644521401217945 3 3729 12 3805 18 2342 15 3858 16 5069 28 3984 11 5208 56 4092 40 3999 45 4078 37 2545 34 4108 61 4966 38 5113
14817 -13.21946186155856 1.3077397646396842 -3.4111521653394261 171 188 214 0.41936261795671681 3 3720 18 3784 15 3845 16 3954 11 4118
14815 -13.288780555937524 0.84476747304395372 -3.5453265431556504 160 178 199 0.11323628853906531 3 3685 18 2207 15 3806
14813 1.8499275024578588 1.7266348129883904 -0.48158717994337263 38 28 26 0.65539125482594984 18 1988 15 3611 16 3713
14812 1.7322589911239425 1.7178560372493485 -0.44192636261595697 181 174 168 0.24506554509972409 18 3518 15 3527 28 1997
14811 1.6237895464662013 1.6864353730078196 -0.63698596033540644 23 24 28 0.11635973337025619 18 3425 15 3418 16 3570
14810 1.6237895464662013 1.6864353730078196 -0.63698596033540644 23 24 28 0.11635973337025619 18 3424 15 3417 16 3569
14809 1.7619238104088752 1.5485020083601004 -0.61711118176210378 184 184 186 0.58473452379533475 5 1438 15 3406
14808 1.3701833958641039 1.6753211671403985 -0.36247605073829559 217 207 205 0.58221013909717356 18 3347 15 3353 36 3484
14807 1.3370191959862165 1.5327295123576301 0.27143451125528972 158 100 120 0.21801000871332571 3 3209 15 3347
14805 1.3665734545748638 1.64269955006404 -0.386933265524537 205 200 220 0.37989045587175541 18 4483 15 3320
14804 1.1774025025762724 1.4013671338728273 0.78232009402173119 212 199 165 0.30184786288329296 12 3268 15 3270 36 3515
14803 1.1734421129800574 1.2839037160498326 0.8320102043869525 154 109 106 0.29808610648100958 18 4431 15 3237 16 3447
14802 0.94378401084473251 1.7540094802907247 -0.59159506925161465 55 74 28 0.77510110478782102 12 3256 15 3216 16 3412 28 3370
14801 0.83304809281561543 1.5773129806626009 -0.061611780861586959 188 186 197 0.52762643357211292 12 3201 18 1470 15 3179
14800 0.95894760855300043 1.5094523482067823 -0.1743219268099962 71 71 81 0.091164103806186669 18 4383 15 3167
14799 0.66143524211436799 1.5544151432206801 0.10670733942399351 178 182 190 0.74476493351545059 18 3134 15 3147 28 4630 11 4703 56 5628 36 4676 45 5650 37 6269 61 5369
14797 0.40138249822491079 1.8394970887303965 -0.93300921185155739 75 90 48 0.42803840640825452 12 3139 18 3089 15 3107 16 3290
14796 0.52788231753788661 1.6133825490521341 -0.45239054444436749 178 184 196 0.14064166448518875 4 2826 18 3058 15 3092
14794 -0.54846760300285624 1.5548070257504909 0.043759553807552053 180 164 177 1.8178588704638983 15 3025 28 1384 77 997
14793 -0.020370468164378108 1.3840952156259063 -0.1014824769164089 159 142 161 0.38347396091463765 1 2381 15 3020
14783 -1.835397479450483 1.9485451734777268 -0.86487011298027838 141 146 141 0.6738647869399752 12 2963 15 2923
14782 -1.8151881788007123 1.1604385387181602 1.5007041638009866 80 78 87 0.46334880429164427 18 1039 15 2884 28 3080
